# .PCD v0.7 - Point Cloud Data file format
VERSION 0.7
FIELDS x y z
SIZE 4 4 4
TYPE F F F
COUNT 1 1 1
WIDTH 1514
HEIGHT 1
VIEWPOINT 0 0 0 1 0 0 0
POINTS 1514
DATA ascii
70.286903 -19.842983 0.37875736
65.71711 -18.305969 0.53757477
67.143044 -16.925436 0.10597047
68.201942 -20.43734 0.10051753
69.99968 -19.999474 0.70210612
69.704842 -20.118181 0.42060703
70.092186 -19.423458 0.18914376
65.653442 -17.812819 0.79165471
67.112061 -21.673582 0.67984533
69.39254 -20.255257 0.77750731
70.67942 -19.430367 0.58198673
69.35363 -18.687542 0.91399497
68.048119 -21.474518 0.80810887
69.934883 -19.962782 0.8185885
70.021286 -19.930803 0.68949157
70.197014 -20.356205 0.53050214
68.50193 -16.996227 0.37249929
70.642075 -19.391735 0.39084095
68.485474 -21.374512 0.7742548
68.960777 -20.246748 0.98879796
71.149178 -18.143061 1.0052351
69.904404 -19.827999 1.0778913
66.987099 -20.257324 0.64009011
69.14949 -17.828369 0.13808586
71.102745 -17.000856 0.97994119
69.360695 -18.161541 0.048844859
69.980499 -16.76757 0.54720634
69.903358 -19.914764 1.0242811
67.456718 -17.401321 0.51297915
70.358109 -20.001045 0.47249806
69.733345 -18.830435 0.43758744
71.878372 -19.062311 0.45251364
70.347076 -20.061449 0.58805877
69.716545 -19.701784 0.77322912
69.168571 -17.817747 0.24345419
68.592819 -20.968742 0.31086087
68.418938 -19.181255 1.0164264
68.903595 -17.425205 0.081170425
70.023293 -20.023411 0.58904237
69.675194 -18.672321 0.29836267
69.713562 -20.139122 0.65004915
69.381126 -18.876907 1.1011609
69.645683 -18.612276 0.38348031
67.279419 -17.500191 -0.097784065
72.212425 -17.756659 1.0474885
67.244331 -21.323122 0.96351784
68.275215 -21.493053 0.76622766
70.038231 -20.624893 0.31273788
68.038651 -21.412369 0.85624933
69.080444 -17.926987 0.66076577
67.607147 -20.35272 1.128261
68.449791 -21.627081 0.40107411
67.629845 -20.899527 0.8400526
69.239883 -19.017485 0.82412976
69.608963 -20.12463 0.95378703
72.621704 -18.292925 0.64243633
67.526756 -21.629831 0.87657028
69.482109 -20.1066 0.45051956
72.648895 -18.363655 0.43488464
66.778343 -20.602583 1.1505498
68.248047 -20.347782 0.31028104
69.195145 -17.909472 0.41704273
68.454361 -20.667778 0.72065192
70.242867 -19.630299 0.26730588
72.598083 -18.54814 0.51192516
69.160614 -17.752825 0.41407603
71.727173 -17.183588 1.1342831
67.192513 -20.046993 1.1868953
70.588181 -19.695013 0.36086622
69.058731 -20.12639 0.74832708
68.442268 -20.755037 0.022166669
66.530396 -20.557348 0.59502357
69.269325 -18.737505 1.053646
68.186966 -21.540041 0.83346248
72.15136 -18.893091 0.75408691
66.854782 -21.695375 0.84981072
70.027931 -19.822662 0.75124919
72.552559 -18.701231 0.46233168
69.5923 -19.912874 1.2731022
71.779076 -18.799562 0.74003005
70.014832 -19.857861 0.88079619
67.730858 -20.338165 1.1021473
69.166206 -20.363447 0.77921671
67.411491 -19.897963 0.83696133
67.698608 -21.950029 0.80465287
71.465736 -18.381571 0.76727897
68.923653 -20.400028 0.61536652
69.682945 -20.125216 0.77666479
68.519043 -20.774824 0.29471689
67.299309 -20.821962 1.1372586
68.750038 -17.602079 0.55334073
69.100052 -18.165947 0.78781509
66.805824 -19.992731 1.3617711
70.237923 -19.694906 0.46768409
67.695099 -22.158089 0.28173006
68.315575 -21.173542 0.80533677
69.60276 -19.681236 0.77020025
66.114464 -17.514704 0.18488453
69.411507 -20.103083 0.76638085
72.401993 -17.876232 0.76563489
69.391289 -18.239403 0.42717263
71.4021 -15.975964 0.43184817
71.629059 -19.08552 0.82632142
72.589485 -18.321598 0.69781244
68.365898 -20.584175 0.23760174
68.218239 -17.56295 0.60422671
70.325089 -20.081202 0.035519604
70.314621 -19.831879 0.1802762
69.190353 -17.9561 0.23555508
68.898674 -20.358389 0.63409299
70.575546 -19.253695 0.89538562
68.52066 -20.800179 0.40710932
68.985184 -20.030689 0.83658195
67.870995 -20.284973 1.095511
69.849792 -19.451408 1.1009647
68.972137 -17.409569 0.25785354
70.14846 -19.960506 0.42941105
69.806488 -20.041492 0.76810843
69.955193 -19.654888 1.1382225
70.698616 -19.4221 0.43166149
69.867371 -20.106878 0.78606367
67.431366 -20.041122 0.65540475
70.372528 -19.950453 0.49874863
69.549362 -18.533611 0.57387662
70.371559 -20.10656 0.76609713
68.065277 -19.255487 0.5269919
70.011726 -19.78891 0.96764052
71.657524 -17.213776 0.62809438
72.23056 -18.788433 0.71655029
69.349609 -20.628548 0.79629987
65.369339 -17.612942 -0.019286864
69.538811 -18.61586 0.54078859
69.144142 -18.401115 0.95468581
72.442032 -18.670155 0.67256242
72.477089 -18.675354 0.4981387
70.390633 -19.229877 1.1219137
66.600609 -20.937553 0.54705065
70.194374 -19.667473 0.70699143
69.769264 -19.894505 0.95861167
65.343086 -17.986973 0.42820203
68.753609 -21.148106 0.41205597
67.632011 -21.620584 0.85358018
69.255539 -20.016283 0.77256429
68.014359 -19.009045 0.0921873
69.199364 -17.905281 0.23916727
70.072113 -19.357908 0.23324551
65.464615 -17.696627 0.21310237
69.612732 -20.111301 0.35157743
68.510414 -21.442375 0.5010668
68.729904 -21.372072 0.27627504
71.568527 -18.620066 0.71002173
66.573524 -20.366676 1.1283896
67.349434 -17.634045 0.50614166
71.331459 -18.643635 0.82420409
66.64328 -17.639757 0.8531844
65.405365 -19.173183 0.95668966
67.437828 -21.656221 0.83400863
70.223442 -17.28636 0.26373851
69.717545 -18.824701 0.24493435
68.938446 -20.153576 0.73530418
69.578812 -20.733503 0.69706082
71.776176 -19.060728 0.53563023
70.078857 -19.927099 0.52717435
68.7379 -21.165293 0.28039962
69.132401 -20.049456 0.70895582
66.941406 -20.045012 1.1992357
68.495125 -19.803787 0.43229797
72.009682 -18.941833 0.60838687
68.55294 -20.787743 0.87158555
71.662476 -17.881647 1.091886
67.393616 -19.356821 1.0135105
68.534599 -16.812012 0.028262978
69.611595 -20.267614 0.82055223
66.70919 -18.273643 0.66566169
65.764229 -17.744535 0.25881907
70.643593 -19.349752 0.8254596
69.103867 -20.101175 0.74545068
72.632591 -18.268967 0.47950006
70.53096 -19.430695 0.74399722
66.613075 -18.136452 0.99274284
69.076744 -19.120646 1.1172689
68.673218 -21.218679 0.58697784
72.282249 -17.781105 0.63195157
69.423607 -18.577129 0.43269643
67.143082 -21.55307 0.87356198
69.812103 -20.046743 0.78173947
65.400085 -17.938009 0.3833414
69.581215 -20.458029 0.79913592
69.731422 -20.352318 0.83242321
69.958603 -20.475832 0.79346091
65.431236 -19.046801 1.0772443
72.207481 -19.011103 0.29833579
67.727684 -21.989264 0.42588115
67.767563 -21.91123 0.81759405
68.340683 -18.860147 1.155212
71.952339 -19.032114 0.52961093
67.880333 -20.942022 0.79102045
65.769188 -18.619776 1.0270501
71.459747 -19.120964 0.67204964
69.45787 -20.145821 0.96573836
69.823189 -19.005516 0.22344069
65.388336 -17.973803 0.38338685
69.68457 -19.281363 1.0391889
65.908234 -17.75173 0.10226963
68.732079 -18.328159 0.54112661
69.849121 -19.89658 0.87352318
69.093231 -18.232231 0.88180441
67.286972 -21.117718 0.84862065
68.85318 -18.865587 0.14875077
67.265266 -17.776972 0.53833169
68.515305 -19.28187 0.57919997
68.315834 -21.488533 0.80243772
71.376137 -18.234316 0.8693884
72.029549 -18.864681 0.58227414
68.104553 -21.219309 0.8092984
69.508965 -20.077812 0.82800967
71.179741 -18.427019 0.92255008
71.505615 -18.732796 0.8548255
70.040947 -20.125229 0.42726099
69.342567 -18.236811 0.16985416
68.451653 -20.641827 0.56909782
68.490013 -18.27836 0.61406189
68.71814 -21.179783 0.4094725
72.448372 -18.545778 0.45875859
68.682816 -21.080616 0.54713076
68.544006 -18.192476 0.60807252
68.536163 -17.010292 0.2171067
65.061226 -18.328901 0.48913819
68.60601 -19.361086 0.60632849
69.801552 -18.836985 0.56088591
70.585793 -19.265507 0.86546361
69.285492 -18.945393 0.60014302
72.136749 -17.816647 0.96259308
71.80822 -19.046577 0.66528231
72.541359 -18.125395 0.53933734
72.172302 -17.958994 0.85221529
68.214767 -20.814514 0.80532801
68.546982 -20.80625 0.60034394
68.340919 -20.962688 0.81112558
70.30291 -20.590137 0.79319561
68.328247 -20.575062 0.25643316
72.291245 -17.844255 0.68272126
69.864777 -19.047159 0.50567156
68.147614 -21.453123 0.848234
70.392799 -20.060497 0.61178958
68.215683 -20.577642 0.8423087
65.130249 -18.633993 0.64581811
67.396721 -20.784693 1.1053492
68.467812 -21.328358 0.63688928
71.534706 -16.213037 0.5140239
68.12014 -20.794443 0.88575554
67.024384 -20.966919 1.0738715
71.159309 -18.448664 0.9659605
70.202309 -19.756258 0.65349716
69.337746 -18.330973 0.77836651
67.267456 -17.486814 0.036142018
66.738953 -21.024126 1.369107
69.030869 -20.559671 0.61915225
70.076393 -19.847755 0.64093304
69.682762 -19.737482 0.74350685
68.411697 -21.703419 0.1700867
68.874153 -20.01223 1.0023478
66.981789 -21.022957 1.0934197
68.449379 -18.219852 0.62239707
71.593452 -18.06184 0.75724787
69.356644 -18.883364 1.0104507
69.774406 -18.845581 0.43189248
69.970009 -19.964214 0.81760079
72.654289 -18.354324 0.6650641
72.303192 -17.438141 0.71027309
72.336983 -17.850714 0.75860816
70.402412 -19.835815 0.32853371
66.072105 -17.492304 0.19708632
70.226761 -20.546669 0.28592408
72.295937 -18.763994 0.51826727
68.345558 -19.372219 0.59792447
66.238747 -19.772957 1.18977
70.686333 -17.950718 0.497143
67.61351 -20.70369 1.0959573
68.685684 -21.198639 0.3286911
69.631981 -19.371252 1.0710627
69.209946 -21.028727 0.19908154
68.540016 -19.685946 0.62814891
69.904648 -19.852135 0.7465018
67.366646 -20.275337 1.18187
68.233391 -20.560183 0.87974834
68.08358 -18.035072 0.78519303
67.943115 -17.270693 0.60681039
67.289803 -20.763651 1.351315
69.223877 -19.012829 0.71746522
71.40123 -18.629431 0.79721761
70.138573 -19.688093 0.72839874
68.095596 -20.542831 0.96337914
70.649895 -19.538548 0.27428478
68.942146 -20.183191 0.76592642
65.233078 -17.944647 0.4275834
70.858856 -17.195589 1.0380801
67.836578 -20.389555 0.79741639
70.973099 -17.544947 1.1703923
70.016434 -14.931634 0.070534214
67.236343 -21.851654 0.51238465
67.531639 -18.048155 0.64320552
69.845856 -19.365667 0.69090414
68.55275 -20.796471 0.078656167
67.748047 -18.618393 0.14434084
66.617203 -20.429817 1.0472746
69.456314 -19.046274 1.0196886
69.590942 -20.005442 0.91455352
69.259041 -19.167711 1.0969008
69.284676 -20.768908 0.73608726
66.329391 -20.103497 1.1097182
71.552177 -18.721914 0.81410396
67.530113 -21.188025 0.91236854
69.956528 -20.51013 0.73884159
70.096542 -19.356121 0.4168475
67.323486 -21.112211 0.8371495
69.935692 -19.231619 0.65628403
72.16555 -17.780939 0.79532588
69.166183 -20.602573 0.75251192
68.906578 -18.482147 1.0653204
71.901398 -18.355982 0.83776021
65.044853 -18.280251 0.73674637
70.503128 -18.907013 0.81797516
66.979843 -20.147715 0.54016322
68.767708 -18.175089 0.63596618
72.638153 -18.220896 0.76049489
72.638039 -18.414721 0.61215091
67.76313 -21.315273 0.87109643
72.591591 -18.309587 0.71350271
71.698784 -17.771378 0.73498195
68.810036 -18.663151 1.0377572
69.422905 -19.070498 1.0162615
67.432266 -21.538433 0.89241195
66.746529 -18.056335 0.58789033
71.918518 -17.347095 0.66778743
70.392731 -19.866285 0.13489752
70.230728 -19.459818 1.3330573
70.568695 -19.580612 0.40518236
69.30706 -18.072754 0.38913795
67.526649 -21.086796 0.79399997
66.858986 -21.063009 0.923886
68.433128 -18.737274 1.0883285
68.528015 -20.723024 0.47093287
65.836525 -17.368612 0.13875233
72.194122 -18.472696 0.67119825
67.138435 -21.364931 0.93768227
68.390999 -20.903509 0.8248294
71.269653 -16.006359 0.62507188
72.695602 -18.406807 0.21943004
70.03511 -20.156204 0.71849883
70.06369 -19.636635 0.71959698
68.481064 -18.523003 1.3767626
72.115974 -18.751715 0.74932671
68.327034 -19.395668 0.66480953
71.268341 -18.19062 0.86895257
67.953568 -16.506981 0.19617897
71.548462 -18.633856 0.81713766
67.824821 -16.602781 0.21479018
68.037056 -20.135214 0.73144567
67.947266 -21.882141 0.40514982
66.118103 -17.672596 0.8364557
69.170128 -19.918901 0.77275622
69.312134 -18.610411 0.94564337
69.281532 -19.649281 1.0504155
70.623383 -19.167208 0.7323671
69.276657 -18.854616 0.68132484
67.916901 -17.885902 0.62636739
67.161514 -21.59622 0.83231127
72.3843 -18.78319 0.50368744
72.501793 -17.99576 0.66394258
69.24678 -17.861917 0.60920644
67.199036 -20.035789 1.163583
69.843361 -18.951294 0.58857787
72.576126 -18.609177 0.63979495
71.979156 -19.064016 0.38774928
71.62233 -17.28266 0.70910281
66.829689 -19.695383 1.2024728
69.346237 -18.724939 1.0304687
67.918175 -20.996977 0.89024216
68.212242 -21.15423 0.87582755
65.748756 -20.022373 0.48885286
70.177589 -19.768814 0.72496063
68.513039 -21.49176 0.6883924
67.958633 -21.509918 0.85618651
68.673859 -21.0606 0.1995495
66.007652 -19.970362 0.61078042
69.344513 -19.111147 1.0432054
68.498192 -21.227695 0.71989864
69.753777 -18.902878 0.11096562
68.83223 -20.11924 0.8253786
68.287949 -19.034916 1.0078181
72.176147 -18.840429 0.42171791
72.273064 -18.663944 0.73534042
69.317307 -20.649811 0.74633133
67.417175 -20.634472 1.1193656
72.57692 -18.58659 0.7944752
68.156319 -20.891819 0.96786499
70.3937 -20.210106 0.35181326
65.948578 -19.79953 0.55020231
67.031197 -18.466084 1.3996301
65.814293 -17.525141 0.31353348
70.202347 -19.823185 0.041149974
71.489143 -19.286516 0.23623028
67.342445 -21.253267 1.1632483
69.525978 -20.736187 0.71722341
71.19455 -18.29627 1.0009964
69.143379 -19.12343 1.0743585
69.178879 -18.546371 0.94287157
68.219566 -20.505497 0.72154272
68.375458 -21.770147 0.28460005
66.985794 -20.270088 0.63906664
68.461243 -20.827154 0.65092027
70.278267 -19.72184 0.033115022
71.088219 -18.329487 0.99077314
67.802284 -21.91185 0.76047564
68.902679 -19.426367 1.0468667
69.400894 -20.891563 0.33914441
69.246597 -20.193096 0.87609261
68.733376 -17.146826 0.070694514
68.531754 -20.812037 0.34139627
72.341393 -18.686735 0.67822468
65.676132 -17.895798 0.49954182
69.540047 -18.546625 0.611651
68.070503 -21.377558 0.8791703
71.356094 -17.207052 0.47771108
70.123993 -19.71036 0.82747227
69.036629 -20.31097 0.77686602
71.653412 -18.483042 0.88034093
69.485382 -18.362139 0.18476173
70.141449 -19.848635 0.54794222
69.421837 -18.901331 1.1178496
68.607475 -20.970682 0.60277098
70.165848 -19.441744 0.44763955
65.866486 -17.813679 0.044626299
67.309189 -21.082012 0.92113596
67.754211 -20.184742 1.0948049
68.327637 -21.446547 0.85012197
68.59864 -21.162846 0.75147641
66.811089 -20.716625 1.0993097
69.071671 -17.787025 0.22256128
69.282272 -18.972126 1.0588367
71.445229 -17.290844 0.63198441
66.805946 -19.460957 1.3953904
69.687241 -16.168736 0.004503997
65.377823 -17.945194 -0.015470291
68.530182 -21.598959 0.30937579
67.461906 -18.082771 0.017340459
70.084976 -19.440659 0.059613317
67.513954 -19.770954 0.7815789
68.227493 -21.680868 0.66535765
69.510765 -18.409126 0.44022307
68.568954 -17.18614 0.43127921
69.585152 -19.822922 0.74217463
67.253044 -16.909321 0.044333369
67.658821 -21.262249 0.91640347
68.606987 -21.166122 0.72995496
67.926888 -18.807156 0.44494385
72.010689 -18.892086 0.6758644
67.15313 -21.286671 0.92160285
69.983421 -19.641663 0.91144699
71.764206 -18.903929 0.86850274
72.340904 -17.899511 0.76501596
69.546394 -19.842964 1.1390506
70.270538 -19.622179 0.91138929
67.692986 -20.608868 1.0968322
69.289635 -20.755302 0.79997146
69.463631 -20.181978 0.93463069
68.162125 -20.530186 0.85088593
69.584694 -20.467594 0.85128826
66.727081 -18.28932 0.62864453
70.01384 -19.936338 0.78462005
68.913231 -17.556593 -0.028555268
70.811653 -18.141563 0.76234764
69.188461 -18.690258 1.078849
69.679192 -19.89155 1.0439405
68.877701 -18.117104 0.51990962
66.200256 -17.895382 0.85324144
70.31086 -19.884583 0.35477594
67.896149 -18.786261 0.4956075
70.005844 -19.89262 0.64794695
69.179665 -19.763905 1.0659926
68.314865 -18.22304 0.57578278
71.445206 -17.748938 1.1476357
68.923195 -19.46232 1.0326459
68.969315 -19.271179 1.0942183
72.447006 -18.692051 0.55075479
67.502777 -21.444872 0.88596034
68.990486 -18.767675 1.0675753
71.621246 -18.06542 1.1556429
70.085213 -19.854883 0.64062405
70.438545 -19.424408 0.91890925
68.825333 -20.126837 0.83376575
67.895561 -20.331816 1.0712997
67.946991 -21.346985 0.90012908
68.941521 -17.462139 0.054930821
71.280876 -18.440289 0.85807312
71.716393 -18.811666 0.7050972
67.469971 -21.762768 0.85238671
69.3535 -20.600309 0.88548547
67.844269 -20.991766 0.8706184
66.909798 -21.326506 0.57565373
67.625237 -21.977346 0.72180462
72.485588 -18.600515 0.59206253
71.940605 -17.804451 1.0871726
67.832314 -16.99547 0.51841807
69.925018 -19.521812 0.86609226
68.573586 -21.582136 0.35165873
68.370781 -21.356678 0.76925015
71.314064 -18.776497 0.91729021
68.914139 -20.495825 0.52003306
67.455887 -19.853245 0.80453002
68.496277 -18.983633 0.65000898
69.538757 -18.585175 0.046272278
71.247078 -15.955049 0.605753
67.432175 -21.176203 0.95119321
68.953476 -17.461159 0.03493426
69.510735 -20.250599 0.7223596
68.578766 -21.106579 0.81987697
70.239799 -19.649525 0.41544187
68.778473 -19.09536 1.0416607
71.558723 -17.23996 0.60580754
70.168091 -17.066395 0.40568382
65.996529 -20.049879 0.30615959
66.559921 -20.983509 1.238744
69.077057 -20.374258 0.81026661
69.474258 -18.933846 1.0624403
70.363007 -19.990305 0.35591102
69.655365 -16.078756 0.10215993
68.655281 -19.241442 0.71542478
70.35556 -19.99695 0.3326754
68.96064 -20.287889 0.90342885
71.409424 -17.273621 0.64025718
68.147858 -21.79855 0.5223493
69.285835 -19.435833 0.7878238
68.307907 -18.802656 1.1111578
67.551498 -21.383739 0.94619268
71.409195 -18.174662 0.77637738
70.692657 -17.654547 1.044796
66.790611 -20.607832 0.69416612
70.200027 -16.830721 0.85762739
71.800041 -18.801981 0.8124041
69.012146 -18.896019 0.19746824
69.826439 -19.618612 1.3750015
71.558144 -18.107796 1.0021319
71.950882 -19.019157 0.52795762
71.544296 -15.95121 0.58439672
69.522865 -18.408728 0.12098993
68.319023 -19.302999 0.45667645
67.050461 -19.46158 1.0631406
69.779251 -20.182598 0.76073831
70.83844 -15.420901 0.18262722
72.426445 -18.735504 0.60715848
72.111923 -18.336195 0.73404348
70.399605 -17.499025 0.62420136
69.511063 -20.033871 1.0557822
70.255188 -20.274147 0.7806688
66.419823 -17.521631 0.38194317
70.344772 -17.043383 0.69274575
66.985626 -20.464745 0.55343723
72.638596 -18.54561 0.81630015
66.642693 -20.24328 1.1636236
70.007179 -19.745781 0.8747552
70.439346 -19.771194 0.37253675
68.608711 -20.945887 0.43178815
65.585022 -19.059193 1.2123359
68.190514 -21.483763 0.84327388
68.442543 -20.733021 0.59692109
72.19825 -18.834135 0.76395369
70.065948 -19.918095 0.64552218
70.052559 -19.602421 0.68912965
72.816124 -18.526747 0.39445573
69.385452 -18.867702 0.62542933
68.086899 -20.987577 0.87449175
71.087585 -16.59536 1.0442152
68.20282 -20.766535 0.89496034
72.272331 -18.790371 0.70482194
69.373367 -18.773739 0.87331551
68.355164 -20.70042 0.69876987
69.925003 -19.886427 0.81967729
66.993279 -20.211781 0.64263242
65.510971 -18.674946 0.72428948
71.94355 -18.270054 0.81730777
69.877808 -19.17309 0.58913314
67.811752 -17.669008 0.56769031
66.887695 -20.681345 1.1088891
68.048004 -17.196257 0.4082284
65.231194 -18.089943 0.54218924
69.666626 -20.861206 0.29541513
70.30677 -19.814886 0.34798455
69.347191 -18.941202 0.84001833
66.269768 -20.397213 0.63690376
70.098328 -19.866854 0.56373584
66.612007 -17.773291 0.4239251
66.047684 -19.965918 1.1573993
72.288254 -18.903135 0.33713919
69.475746 -19.848503 1.4359851
66.866455 -20.724117 1.1432604
71.731819 -19.10701 0.64318699
66.567848 -20.611698 0.6294995
68.630005 -16.979555 0.090833172
67.864059 -21.126774 0.82675999
70.112808 -17.009373 0.45683286
69.295486 -19.185747 1.0868359
71.629692 -17.193462 0.73327428
70.060524 -19.573711 1.1776783
68.50563 -16.794765 -0.043585211
68.874039 -17.347254 0.28650919
65.850327 -19.637814 0.6878078
68.676872 -21.509295 0.28638962
70.270607 -19.855965 0.32524547
71.011017 -18.364592 1.0170087
70.143723 -19.932812 0.47327045
67.000023 -18.146265 1.0298376
68.468102 -21.428177 0.02458543
67.923851 -18.603199 0.71995831
69.827637 -19.665781 1.3118016
69.148026 -18.748957 1.0937371
70.461517 -19.434032 1.0114235
68.943604 -19.865833 1.0889596
70.330322 -20.015169 0.52681369
72.440926 -18.003792 0.66491854
72.56546 -18.320827 0.67870581
72.442169 -18.539499 0.84210867
68.201958 -21.056772 0.82184273
71.867279 -19.067656 0.45443743
67.787941 -21.072256 0.85489678
67.562042 -21.497568 0.85106778
68.412331 -20.668159 0.71598113
68.959213 -19.572071 1.088622
67.971458 -21.652777 0.82177109
70.25174 -20.249342 0.79182374
66.713272 -20.296473 1.1690369
69.317894 -18.905169 0.52962905
70.351463 -19.879221 0.37216035
70.095215 -20.593273 0.80252957
67.127296 -21.280256 1.0570984
68.511147 -19.238058 1.0839497
68.738564 -19.535816 1.0726397
69.548347 -20.58816 0.85159016
69.278908 -18.972239 0.85435998
69.385956 -20.024094 0.98455215
68.408432 -21.747589 0.26575902
69.901268 -19.937866 1.0905622
66.981064 -20.056999 0.58290946
66.288567 -20.38265 0.5747056
69.666374 -20.036076 0.9360413
68.774063 -19.123529 0.37401402
66.687866 -18.048061 0.56033736
68.555779 -21.082977 0.74902087
71.683533 -17.137102 0.61465013
72.017059 -19.024569 0.42655221
67.985268 -16.421175 0.1262258
68.028091 -20.566057 1.0835952
68.985458 -17.496815 0.31562418
68.949326 -18.826788 1.0544217
65.2584 -17.769665 0.05995965
69.901138 -19.166044 0.12390055
72.082695 -19.090223 0.28303471
67.099304 -21.54166 0.75242168
70.018272 -19.485701 1.3596749
69.242065 -19.169161 1.1641306
68.653809 -20.037868 0.72419167
66.052101 -17.475662 0.38033277
70.230392 -19.676769 0.783481
67.700409 -17.886919 0.62301683
69.830444 -20.110292 0.88776928
72.244896 -18.730284 0.8109079
68.407684 -20.654789 0.095434338
70.284393 -19.718756 0.78539145
69.03685 -20.007935 0.77818936
72.672455 -18.679214 0.2804262
70.031754 -19.277407 0.60429376
70.01638 -19.325457 0.50661772
69.995514 -19.854605 0.94613767
72.614777 -18.657814 0.333536
71.781937 -18.666103 0.81234151
68.859642 -19.004677 1.0952926
65.919861 -17.774527 0.50264949
69.266708 -20.612827 0.71936703
70.261536 -20.327982 0.70472318
69.422668 -18.345009 -0.00069189072
68.602768 -21.30983 0.77839881
72.708351 -18.401228 0.44275945
66.038605 -17.823803 0.43388677
69.98925 -20.056322 0.7421121
67.414841 -19.974829 0.63359612
72.201584 -18.511618 0.85906297
68.413017 -18.603928 1.1131996
66.547974 -20.502831 0.9188236
70.329956 -19.822252 0.6206885
68.541855 -16.794416 0.033394553
68.509369 -19.3353 0.59011555
65.867798 -17.947559 0.54376304
68.691132 -21.233875 0.46353269
66.921173 -20.133833 0.51013494
68.494453 -21.043653 0.77559346
67.775169 -16.640911 0.401454
68.981743 -17.506363 0.12419744
69.962944 -19.52836 1.0660596
69.98455 -20.575722 0.33762607
66.93924 -20.209063 0.69431818
69.545967 -18.955917 0.98371655
65.314888 -17.782024 0.39101604
68.657082 -20.931009 0.12688765
70.330391 -16.992443 0.5454964
66.948486 -20.217024 0.59595096
72.142883 -18.706867 0.65422648
69.382057 -18.936541 0.61356002
68.796135 -19.132116 0.39015421
66.781021 -20.655809 0.71605152
66.904541 -20.811804 1.129759
71.093521 -18.754276 0.52346134
69.561813 -20.093752 0.36519977
69.348289 -18.855919 0.96740079
66.534134 -20.547302 0.61071581
70.425896 -19.915468 0.24657635
68.907242 -17.415001 0.031265005
71.915169 -16.759029 0.55957448
69.495598 -20.086834 0.848423
69.829346 -20.102348 0.85639632
71.744812 -18.169075 0.84976238
68.330971 -19.472633 0.50886095
68.486938 -20.674061 0.22078323
70.027878 -20.248898 0.79573709
69.389877 -18.210264 0.11741687
65.05439 -18.337385 0.74819475
67.073677 -19.610264 1.1096551
69.460655 -20.767441 0.78273481
69.908241 -19.148857 0.30799457
69.514748 -20.896441 0.30074218
65.292923 -17.626839 0.14647087
70.606514 -17.954576 0.30464217
69.406235 -20.332153 0.79634875
67.473289 -18.172247 0.357815
70.229385 -19.657995 0.07949312
69.778793 -18.875872 0.46283758
69.93531 -19.877602 0.72733355
68.938927 -20.226582 0.79309183
69.159943 -20.833115 0.7109645
67.419388 -18.044884 0.40241492
69.512489 -18.396242 0.097816229
70.405975 -19.913538 0.19667339
67.926086 -20.898157 0.79367161
68.260323 -20.652395 0.88476431
72.196404 -18.799858 0.86968219
69.497383 -18.687649 0.92189693
72.600349 -18.492903 0.74269253
65.531868 -17.774782 0.60590535
68.311081 -21.691141 0.40774742
71.825478 -18.504419 0.84864336
67.725555 -21.594543 0.8453359
70.766983 -17.922434 0.57556105
68.41481 -17.39883 0.48065683
68.165543 -21.636938 0.7480585
66.755623 -20.922148 0.72582132
71.977737 -18.188093 0.73397994
69.475845 -20.578079 0.77528542
66.563812 -18.160027 0.96631962
72.089737 -18.131075 0.81279755
70.160583 -19.544258 0.50746202
65.545387 -17.475014 0.1711268
69.313255 -18.911018 0.72687835
71.412773 -17.268831 0.61031777
68.163048 -21.017796 0.82143599
65.228249 -18.348379 0.8007924
70.271774 -19.719637 0.33162153
69.223923 -19.66622 1.0634545
71.035927 -18.219137 1.081811
68.541718 -21.41494 0.54578716
69.322334 -18.774702 1.0459366
69.115128 -20.684605 0.71374154
69.062492 -20.038437 0.80127037
69.868134 -20.180384 0.63195407
68.652802 -21.102797 0.6338383
66.23584 -17.866236 0.48058879
71.755409 -19.19194 0.39988565
69.604095 -19.894779 0.93530732
72.522697 -18.692501 0.1094909
72.38311 -17.733236 0.59686846
69.569862 -20.892775 0.33363548
71.897377 -18.896297 0.68538177
67.401405 -18.043003 0.4135395
69.005913 -19.440041 1.0626842
70.362526 -20.142395 0.54425621
65.093689 -18.404461 0.21245287
68.928978 -17.426296 0.55656034
70.187065 -17.135136 0.27570894
70.027756 -14.923164 0.071414866
71.353523 -17.380909 1.1545016
69.130058 -19.968048 1.0892084
72.4347 -18.01693 0.66713119
68.366905 -20.829151 0.81087917
71.54847 -18.085306 0.89865345
68.055847 -21.35988 0.86851239
67.723213 -18.618893 0.21981338
69.989922 -19.337578 0.12729001
68.588844 -21.398907 0.55993372
69.871536 -20.049969 0.71576941
68.132332 -20.268675 0.50349146
71.730957 -19.106411 0.64120674
65.762833 -17.686686 0.2964898
67.834229 -20.824148 0.89648944
68.257233 -20.674892 0.89635229
67.483925 -21.194092 1.0366415
68.013474 -21.84317 0.38307816
67.117813 -21.340601 0.97805339
70.117737 -19.562038 0.99040639
70.22081 -19.755955 0.58447969
70.581696 -19.608328 0.30533227
65.518021 -19.052526 0.54720324
72.300949 -18.78356 0.79747283
70.048302 -20.175598 0.79711229
69.362762 -20.375511 0.87996554
67.46563 -19.77433 0.81390613
68.990135 -18.044323 0.48746967
69.172226 -19.027672 0.70924884
68.921501 -18.226513 0.93397748
68.448021 -21.519888 0.7405228
69.761963 -18.692577 0.049178936
68.287659 -21.443106 0.77568883
68.102127 -19.055607 0.66278434
70.217018 -19.943106 0.7455585
69.614471 -18.645662 0.043761581
67.092979 -21.166058 1.057963
70.379158 -20.030813 0.1958545
72.220528 -18.304317 0.76488769
69.552452 -20.149691 0.53043944
69.141792 -20.327974 0.77368009
69.318443 -19.697128 1.3196467
71.550957 -17.119791 0.72004879
66.010147 -19.23864 1.5997412
67.514725 -20.679369 1.129239
66.502968 -18.301497 0.66774547
68.260368 -20.381382 0.2682983
71.28138 -18.293211 0.8152585
69.331833 -18.6873 0.89358592
72.604546 -18.529934 0.46678847
71.113625 -17.226421 0.39239016
70.122887 -19.805149 0.47750577
67.99073 -16.50102 0.20756361
69.486671 -19.080879 1.0483584
66.271431 -20.582378 0.59443665
69.786118 -19.747557 0.75288534
67.26873 -21.788519 0.80265135
67.126488 -21.431015 0.95933664
68.900757 -20.305454 0.74553186
69.308014 -18.882544 0.7639342
67.252464 -17.750076 0.55052638
72.052475 -18.954948 0.80883586
68.892479 -19.662151 0.070936561
70.019112 -20.104568 0.86419141
69.238632 -18.995392 0.55213374
68.517738 -20.735752 0.31769985
67.317253 -19.882755 0.92142355
67.485336 -21.094534 0.91296858
67.898178 -18.877018 0.47679543
68.860657 -17.376913 0.065072007
69.313026 -18.03508 0.39830309
69.339371 -20.078531 0.73788613
69.044853 -17.621447 0.43595466
72.717812 -18.497248 0.23143151
72.489082 -18.008345 0.73114932
69.547287 -20.70713 0.525796
67.202423 -21.544657 0.3630136
71.473106 -18.096851 1.0539457
68.588699 -19.972431 0.48360497
72.008598 -18.991619 0.86190081
70.465096 -19.328302 1.0282333
69.618706 -18.633902 0.12586233
68.5354 -16.921091 0.25125942
66.630043 -20.444883 1.3575432
69.704292 -19.680302 0.78906298
71.41954 -19.093899 0.27759179
67.261406 -19.987402 1.1885052
69.582268 -19.792707 0.70938158
69.264183 -20.065495 0.27191252
67.211487 -21.812529 0.4999989
71.822388 -18.86334 0.814044
65.760986 -17.700436 0.65053058
65.264069 -19.301481 1.0565202
64.979172 -18.26597 0.66286147
70.043388 -19.56089 0.65289533
72.600922 -18.526594 0.40270647
72.125732 -18.263592 0.76245004
71.432549 -17.264364 0.69286019
69.875252 -20.52804 0.78565258
69.946251 -19.921234 0.46172446
69.817589 -20.36224 0.70674145
70.460129 -15.217443 0.30562729
67.767342 -17.049017 0.49027261
69.562386 -18.779028 0.47682732
72.417458 -18.067862 0.64724958
71.883614 -17.794643 1.0842718
68.480453 -20.855293 0.65686637
67.610176 -16.956497 0.45061374
66.512077 -18.302719 0.62218988
68.337593 -20.867359 0.8560679
68.63089 -21.034641 0.64971048
70.208679 -19.758633 0.83158582
70.324783 -19.917185 0.60695261
69.933846 -19.885422 0.91403461
70.212204 -19.898052 0.40098965
68.315674 -20.497688 0.064706929
70.75856 -17.982946 0.61770356
71.455261 -17.224295 0.73492801
66.185028 -19.98992 0.45123133
64.999207 -18.254124 0.69028437
70.126656 -19.858179 0.60135305
70.318115 -19.899563 0.35592857
69.869514 -19.561646 0.67073512
69.613419 -19.660095 0.75177217
70.400497 -20.136515 0.58783084
69.410072 -19.864098 0.75777531
69.079178 -19.567936 1.1243081
72.61277 -18.467691 0.53371197
71.576645 -19.12418 0.52634037
68.329315 -20.527557 0.051236756
70.236763 -19.639875 0.084475316
69.180664 -18.5089 0.92240858
67.595032 -20.586876 1.1591955
67.142624 -19.752798 0.74367136
67.768585 -21.402136 0.86278689
70.323471 -19.80369 0.38857177
69.815849 -20.008961 0.43029392
69.703651 -20.640692 0.66684562
72.718071 -18.703751 0.20424303
70.272453 -19.707216 0.30358607
66.625771 -20.89077 0.59375262
70.647362 -19.143635 0.72408992
70.169594 -19.662683 0.85894108
69.208931 -20.662392 0.83987665
69.445427 -18.380293 0.54505324
67.393402 -16.775978 0.29694086
69.138458 -17.921074 0.20325842
70.60788 -19.211706 1.045948
67.986488 -21.514887 0.87415653
68.268608 -21.381826 0.89653265
69.759842 -19.344818 0.21567899
67.06134 -20.260357 1.1681256
69.890823 -20.331276 0.76993549
68.653046 -19.24239 0.6499728
67.268486 -16.963615 0.46602526
72.487587 -18.067099 0.65815324
66.249466 -17.509418 0.35099673
71.329681 -18.275763 0.91602242
70.023026 -20.434925 0.73207599
66.558403 -20.537422 0.80170208
70.087563 -19.921345 0.70410544
72.165756 -18.314636 0.8181988
69.743652 -19.616131 0.70449108
66.658379 -21.012337 0.5441699
72.00309 -18.940128 0.71470839
69.396919 -20.440025 0.7375055
70.332024 -19.636543 0.81747794
72.512039 -18.407993 0.80412865
71.608131 -19.303204 0.2763288
66.05619 -19.919277 0.47171265
67.87281 -21.31806 0.8055355
71.245499 -18.64257 0.87142003
71.804459 -17.557129 0.99537247
70.662956 -19.334984 0.50267762
69.938919 -19.132538 0.32567084
67.159218 -21.245222 1.0237468
70.667908 -17.535881 1.0812953
69.442436 -19.843584 0.97149765
68.340439 -20.594772 0.77060497
69.926559 -19.86908 0.78366178
68.763016 -21.352177 0.3518765
68.354874 -20.644127 0.056335606
65.65313 -19.231531 1.4482594
67.680153 -20.923416 0.84887397
68.953362 -17.625511 0.41607314
67.179649 -21.509766 0.86190635
66.571182 -20.735561 0.57536042
71.465866 -18.253296 0.83232021
67.58226 -21.545794 0.82594556
69.645241 -16.182055 0.023112237
69.947029 -20.001579 0.72931278
68.115067 -17.055689 0.59052098
69.157593 -18.958483 1.0920377
70.017738 -19.305887 0.39816332
68.599312 -20.813562 0.21173453
72.44632 -18.711395 0.52666324
69.678154 -20.087791 0.95951033
71.127129 -17.227217 0.3644098
68.335464 -18.445555 1.0183663
69.65995 -19.880131 0.34604177
66.903374 -20.218307 1.1732329
70.562073 -19.609131 0.40884334
69.177544 -18.926914 1.031304
66.66832 -17.907394 0.92307723
68.554703 -19.974594 0.59128022
72.181686 -18.381763 0.87752533
68.654991 -19.862284 0.82007813
68.094063 -21.458124 0.81072652
70.671104 -19.411106 0.67104578
69.837601 -19.771336 0.9542855
67.964127 -21.707529 0.84140766
69.924988 -19.617241 0.95864981
72.439095 -18.687958 0.59843796
69.149033 -19.011801 1.1046829
69.644081 -20.015547 0.96671307
70.059845 -19.617638 0.77251685
69.081711 -17.694977 0.11588623
71.585136 -17.323067 0.71004522
69.359207 -19.37089 1.0556468
67.522491 -19.909317 0.75066835
69.870117 -20.696226 0.25901052
69.267815 -17.985016 0.3305234
66.73111 -20.763622 0.64171284
68.559364 -19.134541 1.0265489
72.18251 -17.834742 0.92522985
68.180176 -17.350908 0.44711077
69.16581 -18.095104 0.5972777
70.288277 -20.490139 0.20115507
70.356857 -20.400572 0.30502459
68.667572 -21.44665 0.36836535
69.938004 -20.729017 0.33802342
66.037903 -17.582048 0.68524557
69.35965 -19.953678 0.69978607
69.813278 -20.625414 0.71629715
69.738831 -19.718126 0.69807434
69.754875 -18.766544 0.52038753
69.374687 -19.661987 1.0786957
69.545914 -18.493359 0.58954555
70.376167 -20.27466 0.33830291
68.820885 -19.518589 1.0508986
70.157074 -17.023359 0.46882766
70.227287 -19.757469 0.89975184
72.326408 -18.716625 0.65393358
70.193535 -19.512833 0.14535713
69.645882 -20.325663 0.85646188
69.458496 -19.80607 1.3684278
66.551262 -20.26358 1.1182779
67.08326 -21.292265 0.87545961
70.132004 -19.788776 0.7879526
69.433083 -19.977968 1.1736308
69.606407 -20.586605 0.77760971
72.767982 -18.605047 0.22099639
69.477257 -20.155283 1.0222528
70.327538 -19.964952 0.50605106
72.519859 -18.182432 0.72197288
70.98362 -17.63287 1.0460752
65.53479 -18.325783 0.62278515
69.263626 -18.023508 0.29591423
69.608299 -18.588505 -0.053847581
72.422256 -17.99544 0.85493553
70.608871 -17.931879 0.54852426
72.506996 -18.622082 0.49020091
68.277733 -20.369497 0.25668007
70.845421 -18.232008 0.66557753
67.938217 -20.834858 0.86267626
68.221733 -20.69396 0.96303958
67.867111 -18.029423 0.88633978
68.271255 -20.602911 0.75571781
67.206055 -17.22921 0.27535102
69.299622 -19.900976 0.69340253
68.006706 -18.202286 0.5071224
67.001122 -20.396975 1.1114593
68.441696 -19.304993 0.59581149
69.890778 -19.570799 1.3093003
66.675713 -21.150236 1.1706957
65.114525 -18.082409 0.10113699
71.623108 -18.327833 0.81255698
70.154785 -20.432739 0.37773553
68.543678 -21.111858 0.77325505
69.05793 -20.092031 0.86006534
72.137558 -17.835344 0.9335407
70.064957 -19.943007 0.79048496
70.071632 -19.476435 0.56225169
70.659317 -19.23278 0.56737655
69.238579 -20.502045 0.82846898
69.860054 -19.931591 0.85433072
70.22966 -19.798531 0.39155847
67.927574 -20.430008 1.0469302
67.619728 -17.557415 0.44774631
69.301781 -18.068745 0.21267296
69.699181 -20.805052 0.28000984
70.078247 -19.823715 0.68523061
70.275635 -20.264624 0.52024043
72.654266 -18.458292 0.72528154
69.108192 -19.704409 1.0901263
65.942482 -18.21513 0.62920403
65.099396 -17.827581 -0.1019105
68.513786 -21.235554 0.77054226
69.64444 -18.693409 0.61631793
72.310928 -17.592278 0.56194425
67.49575 -17.448544 0.38140169
69.601662 -20.723423 0.62892532
69.419601 -19.539474 1.1100575
68.00499 -21.813854 0.76400411
71.501694 -17.236137 0.70742035
68.446808 -20.927799 0.76231229
71.241623 -18.274441 0.76338947
67.955528 -21.913404 0.57975459
69.658058 -20.112473 0.96195835
68.683136 -21.057072 0.053704899
70.146423 -19.602924 0.38491222
70.381416 -20.065111 0.1144394
70.215492 -19.745035 0.65132177
65.893982 -17.336779 0.089921907
67.979446 -20.714069 0.90069759
71.809174 -16.973322 0.76304644
72.090141 -18.849909 0.78295535
68.869286 -20.079815 0.85819811
68.438148 -20.644815 0.46768975
68.948685 -20.411726 0.67976999
70.074028 -19.880682 0.57692206
67.857903 -20.102324 1.0799019
69.218292 -19.00816 0.59080529
66.231514 -20.269701 1.0874022
70.287849 -20.397482 0.35823923
67.953972 -20.009237 0.72244716
68.710411 -21.2129 0.53399152
72.700325 -18.460028 0.75868541
69.663071 -18.66958 0.22433059
69.769562 -18.88681 0.31879243
68.527855 -19.269808 0.70662665
66.857445 -21.237814 0.86961001
72.415916 -17.836376 0.58255827
70.311279 -19.833044 0.11831385
71.865173 -19.030573 0.49771485
66.941833 -20.955856 1.108434
68.383888 -19.31286 0.88994187
72.198257 -17.513149 0.66315198
70.515388 -17.187037 1.0489672
68.884598 -17.420162 0.33027416
68.549492 -21.117031 0.79429489
72.61705 -18.231867 0.59339267
69.382797 -20.046312 0.98507142
68.657761 -21.080074 0.07074251
71.454453 -16.564226 0.66628391
69.513161 -19.522821 1.0892419
70.401077 -20.211685 0.42095074
72.613907 -18.248735 0.74780196
69.700386 -20.110411 1.0654571
69.876205 -19.002335 0.42309234
67.223053 -21.922209 0.2934348
68.625122 -21.107124 0.57272613
65.737686 -17.535734 0.22735886
72.433441 -18.006678 0.56038529
68.874435 -17.958885 0.53247529
69.383675 -19.623556 1.0703703
66.236771 -18.329546 1.0208147
71.881996 -19.060959 0.4811236
67.888908 -21.274908 0.84013367
67.548126 -21.377394 0.84002072
70.004974 -19.91412 0.71300912
69.81752 -19.834475 0.89409697
70.389809 -20.027283 0.38028687
69.518303 -18.496126 0.59426051
70.753914 -17.959694 0.60809523
69.177322 -18.381477 0.95655638
69.371277 -20.407795 0.7289592
67.585327 -17.340014 0.37894464
72.708672 -18.563335 0.12563384
66.001671 -17.446259 0.10116608
66.180855 -19.024277 1.5178943
70.104095 -19.434526 0.074606128
67.863464 -20.861504 0.84238958
71.536423 -19.124424 0.72393435
69.939629 -19.063778 0.36719823
72.094185 -17.549574 0.60109377
70.023499 -19.561634 0.80068368
68.272438 -21.438925 0.82743466
70.180359 -19.728962 0.79762405
69.64579 -20.177866 0.74401969
69.200714 -20.688488 0.78674519
67.333298 -19.717514 1.1610272
69.525795 -20.455715 0.76040781
67.108894 -20.037096 0.65010142
68.088646 -18.516005 0.93075329
67.462555 -21.896105 0.7299208
68.376404 -20.989706 0.80769104
69.751953 -19.92581 0.93816102
70.119164 -19.750706 0.68043351
70.046806 -19.752529 0.75527632
67.263969 -20.838078 1.086154
68.740303 -18.437988 0.95807195
67.857613 -20.390018 1.1434747
68.252571 -20.616875 0.76640946
67.243073 -21.577562 0.80424803
72.315826 -18.821999 0.63241529
68.500031 -21.057291 0.80146253
69.468224 -20.200586 0.44498461
68.72525 -17.610655 0.57313424
69.909241 -19.692305 1.0525167
69.942413 -19.391685 0.65602374
72.45443 -18.863464 0.30833584
68.262764 -17.015602 0.41223985
68.259384 -17.477278 0.61287034
68.187454 -18.545366 0.51843554
66.483391 -17.525171 0.80012262
66.705841 -19.198471 1.1177691
71.397827 -18.239685 0.87708277
70.39978 -20.061804 0.55956793
67.740051 -18.066288 0.1799777
72.339111 -18.29991 0.77430451
69.329514 -18.078568 0.40870112
69.421173 -19.482613 0.91520494
67.984238 -21.838078 0.67632163
71.560661 -19.095264 0.53249794
68.637299 -19.24943 0.475674
70.408989 -17.407192 0.68302917
69.965324 -19.323887 0.66412085
67.512985 -17.066069 0.47762948
69.634499 -16.11352 0.011057004
68.611237 -20.888866 0.14271981
70.525093 -19.367359 0.91573387
65.98896 -17.761318 0.83713931
68.896347 -20.298391 0.76893175
69.520241 -19.077732 1.0700667
66.179169 -19.506979 1.0755763
66.250748 -17.507971 0.045286573
72.471024 -18.66324 0.63691914
71.479095 -16.875515 0.93645096
69.614983 -19.146069 1.1324378
68.26162 -21.746147 0.38990504
70.345741 -19.891798 0.19238114
68.998116 -18.78013 1.0434972
67.969337 -20.813457 0.88425022
71.976776 -17.705307 1.1181214
70.756271 -15.402282 0.43760946
71.247261 -18.647223 0.85365367
71.222328 -18.297277 0.92737436
69.15992 -20.67848 0.75422466
69.065445 -18.978136 0.32771498
70.678368 -17.581623 0.96640158
69.495117 -18.385817 0.47219092
69.942894 -20.607138 0.42074686
68.099991 -17.16905 0.57158083
70.064827 -16.900915 0.50255466
69.648781 -19.796202 1.3926224
68.431808 -20.758514 0.17217334
65.595558 -19.083479 1.1826154
68.743538 -19.723156 1.0562299
69.422287 -20.896696 0.19842055
69.323746 -19.88958 0.71199584
70.106079 -19.81592 0.77749336
70.351608 -19.714462 0.78680372
66.643448 -17.655937 0.89214611
68.505867 -20.741457 0.3079083
70.310593 -19.557968 0.91353375
72.091629 -18.911407 0.86560541
66.586952 -20.695259 0.61519706
68.082054 -20.571556 1.0105929
72.147606 -18.819572 0.44650424
68.184395 -17.413372 0.51105016
72.064034 -19.187737 0.74466193
70.369408 -20.094517 0.49958077
66.978119 -20.012472 0.5376336
71.690353 -19.276178 0.12351379
68.75367 -18.631174 1.0818515
69.953255 -19.462873 0.76050121
67.369469 -21.065332 0.92083341
72.210732 -17.670948 0.69910568
69.773773 -20.090473 0.48062885
71.558289 -17.267082 0.86920035
67.033066 -18.328671 0.65958589
69.277992 -19.690546 1.115696
68.057327 -21.00127 0.86965764
66.531952 -17.414438 0.6537571
70.561562 -19.287273 0.8535319
69.492577 -18.388365 0.5083704
68.124687 -20.609505 0.95674008
72.6726 -18.373428 0.48889536
72.438332 -18.280327 0.82564455
71.973412 -18.227879 0.87829256
70.335152 -19.735939 0.36553344
72.130249 -17.788664 1.0163858
67.591293 -21.119827 0.99973726
65.082695 -18.213654 0.36301532
69.552002 -18.448967 0.25014642
67.016106 -19.629156 0.53272009
70.139992 -19.445526 0.09783183
65.257607 -17.999113 0.0011765137
69.163704 -20.943096 0.34763235
69.968895 -19.799246 0.93089193
70.278877 -19.827381 0.53584957
66.824493 -20.233137 0.39644015
67.259567 -21.266788 0.9365229
72.043388 -18.978657 0.34788308
69.887657 -19.891068 0.99902719
68.885452 -20.482973 0.55288899
71.600815 -17.137543 0.68676656
68.241531 -20.672279 0.85786331
69.31218 -18.086143 0.44189408
69.332092 -19.507324 1.150738
71.248466 -18.5151 0.78577638
69.705009 -18.752825 0.091621175
67.802399 -16.516176 0.020122319
69.419449 -19.639456 1.1215451
72.453629 -18.305929 0.76559561
71.345749 -18.178158 0.89957929
71.480537 -18.022142 1.1303685
69.510895 -18.999681 1.0678638
72.411575 -18.40847 0.75109005
69.262451 -18.867468 0.89698899
69.331657 -19.043385 0.53852183
70.513313 -20.538725 0.81572741
72.169716 -18.085863 0.862001
67.491898 -20.720642 1.1106385
68.765671 -19.486162 1.0966964
71.454338 -17.257263 0.7308445
67.445496 -21.684586 0.86822647
68.193405 -18.215742 0.60173911
68.009651 -21.548277 0.85970271
68.015442 -20.145615 0.67689508
67.121803 -17.015911 0.12779258
72.242989 -18.792225 0.51766843
68.979065 -19.130938 0.44581449
69.779373 -18.800798 0.51806188
69.441864 -20.290514 0.78079504
68.931137 -19.494013 1.0549825
69.280655 -18.007048 0.31978947
68.62664 -20.898428 0.39626494
72.655052 -18.409353 0.43658024
72.58593 -18.214737 0.55891001
69.756691 -18.852734 0.4221029
69.438652 -20.603863 0.76199126
68.529938 -21.489178 0.56773591
65.925308 -18.184631 0.5647459
71.605446 -18.201578 0.8121044
68.768318 -18.752304 0.17406344
71.612816 -18.373783 0.79843318
70.389297 -19.957224 0.37094471
69.645409 -19.345985 1.0255842
70.333344 -19.207031 1.2655119
70.48848 -19.548603 0.86094391
67.511322 -21.438253 0.87687755
66.572861 -20.735935 0.74264312
71.180084 -18.517698 0.846861
69.88147 -18.988111 0.38423708
69.948524 -19.168346 0.50978869
65.318306 -18.717751 0.52286339
68.215248 -20.593843 0.86353827
68.69178 -20.145227 0.46672174
68.001205 -20.530869 0.13754155
67.544006 -19.534405 0.71554744
69.086365 -19.043663 1.1367209
68.543755 -20.838366 0.16237518
69.865723 -19.050211 0.18300603
69.264885 -18.03647 0.03745643
72.718567 -18.473415 0.15822345
67.898018 -21.324263 0.86290288
69.72757 -19.948162 1.0334378
69.873405 -19.041307 0.21214402
68.201912 -20.576283 0.13610518
72.2314 -18.849411 0.77158761
69.631256 -20.111685 0.77582508
72.099068 -18.880604 0.47240448
70.621185 -19.611547 0.35405207
70.176147 -19.594786 0.084045634
66.361206 -17.462013 0.30526876
72.747101 -18.556862 0.037100725
68.218498 -17.590672 0.62296563
70.048988 -20.585138 0.27406463
67.058868 -20.314692 0.72080058
72.112961 -19.077545 0.23713413
71.97226 -16.904968 0.54672837
70.302116 -19.839546 0.56088275
68.003166 -20.101662 0.6786319
67.831131 -20.266901 1.0986917
69.540268 -19.990452 1.0354269
69.164108 -17.764364 0.021504387
69.552094 -19.898354 1.1073875
71.61084 -18.646976 0.83441401
70.637619 -17.983822 0.4828926
65.769897 -17.812441 0.76611382
68.971283 -17.457565 0.39212781
66.662758 -20.084423 1.1795403
68.489723 -19.542452 0.58265775
68.823318 -20.043245 0.93404025
72.245506 -19.008615 0.22759661
67.290268 -21.278738 0.89412695
67.007896 -21.313244 0.76681632
69.472382 -18.461365 0.42599598
67.882286 -21.275566 0.89050889
68.408394 -21.632153 0.4799639
68.971352 -17.561043 0.43724799
70.11013 -19.550795 0.01946893
69.941086 -19.290089 0.65124768
66.543991 -19.318068 1.1129407
71.322403 -18.633953 0.84343195
68.505753 -20.877924 0.44587657
67.258507 -20.581102 1.1893325
67.163292 -21.707327 0.78366172
69.454094 -20.002605 1.1465019
68.170418 -20.698801 0.93617874
71.139313 -18.203823 0.97803336
68.54702 -20.973141 0.55754977
68.658134 -21.129185 0.19886172
70.041306 -19.787424 0.77611208
72.11068 -18.776928 0.6582253
71.994461 -18.412046 0.79252416
68.446304 -21.557945 0.60414433
71.772125 -18.415037 0.74763077
70.370789 -19.903933 0.10048828
68.341995 -21.58457 0.67456359
69.375832 -20.771881 0.85758227
69.343536 -19.999866 0.69575524
67.59758 -20.933447 0.88670462
67.006218 -19.912447 1.1763309
72.281693 -17.646105 0.66856819
68.250092 -20.496702 0.51824778
68.085159 -21.892311 0.095789298
67.164146 -19.991758 1.1793855
70.671547 -19.42804 0.35614145
67.248085 -17.622877 0.33758909
68.523895 -17.104996 0.52643079
68.214905 -20.617411 0.89924723
68.694298 -21.484531 0.30026513
71.767822 -19.017796 0.49250019
69.324005 -19.562996 1.105572
65.875252 -17.626312 0.41644579
70.621758 -19.409433 0.65554732
71.319633 -18.048037 1.1612804
69.549095 -18.746017 0.68981218
69.756996 -20.616907 0.78292406
71.670837 -19.307581 0.38963479
67.118546 -17.280277 -0.0032080114
68.790642 -17.264868 0.08731667
68.459724 -20.818419 0.64080358
71.657379 -17.132877 0.57924414
72.644402 -18.523235 0.11164717
67.272835 -19.237642 0.99933273
68.350151 -19.426855 0.66661626
67.954384 -17.759975 0.67705268
67.489052 -19.92308 0.72069192
70.046509 -19.34376 0.60216713
69.496071 -19.461523 0.97276521
68.69883 -21.147833 0.22217977
69.386497 -18.148964 0.39566305
70.318932 -19.877853 0.30250254
66.764046 -19.026375 1.6483356
67.649048 -21.302204 0.91250247
69.782997 -20.449356 0.81502223
69.839684 -19.492935 1.320417
69.778664 -18.889654 0.45012167
69.046005 -18.004593 0.70691365
70.456291 -19.533789 0.66169161
69.508202 -18.679018 0.85229838
70.254158 -19.812227 0.43591902
69.153206 -19.612787 1.1128516
68.885094 -19.996065 0.98808491
65.611176 -18.05479 0.49484292
69.969429 -20.087145 0.78286552
71.561867 -17.888817 1.0379615
72.421722 -18.770597 0.4399873
68.503403 -18.50396 0.44693363
70.071808 -19.650387 0.91012037
69.739738 -19.727198 0.7506538
72.402161 -18.254894 0.72829729
72.511543 -18.676428 0.84065408
66.331261 -20.550301 0.47373739
72.451981 -18.058563 0.72380197
68.449242 -19.677017 0.43092728
67.995041 -18.718538 0.65980953
67.255569 -16.932535 -0.087265939
72.340919 -18.707211 0.56856859
69.216034 -19.439877 1.0069561
68.877319 -19.850342 1.1147835
69.500732 -20.488989 0.7633093
67.59465 -16.654032 -0.0059098359
67.398064 -19.931393 0.77936172
69.064545 -19.82991 1.0360047
69.957596 -19.176954 0.19780038
65.397919 -18.704708 0.61416078
70.717331 -19.358082 0.41759008
69.301399 -19.925985 0.71185207
69.113205 -19.388639 0.42394996
69.524979 -19.805826 1.3578551
69.810661 -20.038963 0.41798866
68.438416 -20.78607 0.12116664
69.46759 -20.378754 0.70964038
67.218002 -20.175955 0.76772892
69.48584 -18.445061 0.24433194
66.639381 -20.152275 1.1414971
69.485657 -18.924284 1.0367826
69.849823 -20.676134 0.3880564
67.078987 -17.158882 0.15218236
67.022255 -20.386812 0.53264135
71.364113 -18.647554 0.84725088
71.398499 -18.234249 0.78776252
69.17659 -19.015461 0.47928327
67.214569 -21.213823 0.95839924
68.31295 -18.580494 0.53038245
70.331963 -20.095001 0.66708094
69.916664 -19.890057 1.0453248
69.200432 -20.421194 0.72825485
68.653114 -19.416965 1.0971851
72.519012 -18.027342 0.74909168
71.612747 -19.15074 0.54536653
67.218102 -21.317167 0.96804988
68.271652 -20.381516 0.51466548
67.773766 -21.29546 0.83668709
67.912941 -20.981836 0.88569188
69.1008 -20.929623 0.35695529
68.540512 -20.78957 0.50226015
69.411285 -19.936462 0.72517622
68.114182 -21.251162 0.83413798
69.391937 -20.275917 0.76431984
69.621132 -19.488943 1.0789232
70.292038 -19.83094 0.48179132
67.863503 -20.464907 0.81025833
67.958252 -18.262007 0.127739
67.994034 -18.14785 0.52495348
69.646957 -19.314911 1.0668641
68.149757 -21.422831 0.85638565
72.337204 -17.745853 0.64323211
69.612373 -20.695848 0.70593828
69.547569 -19.515356 1.1431084
68.123444 -20.805569 0.8464011
70.410927 -19.770758 0.21708827
